2.868366,9.555943,0.327145,-0.000000,0.020167,0.999797,0.000000
2.805299,9.531581,5.476627,-0.000000,0.021925,-0.999760,0.000000
1.437414,10.069295,0.752876,0.531185,0.080146,0.843457,0.000000
0.595798,10.055415,1.659088,0.879910,0.087086,0.467091,0.000000
1.625098,12.171599,1.067152,0.460528,-0.542064,0.702909,0.000000
1.420547,12.276922,1.291673,0.492633,-0.546732,0.677051,0.000000
1.422826,10.616524,0.737733,0.532892,-0.005121,0.846168,0.000000
0.590070,10.816072,1.625148,0.877768,-0.010722,0.478966,0.000000
1.418583,9.941599,5.008293,0.602474,0.049821,-0.796582,0.000000
0.662499,10.037616,4.236454,0.852230,0.095986,-0.514286,0.000000
1.076368,11.607631,4.472148,0.808834,-0.212818,-0.548175,0.000000
1.300027,11.573068,4.699554,0.531126,-0.195275,-0.824484,0.000000
1.528633,10.852062,5.106226,0.543699,-0.028717,-0.838789,0.000000
0.648044,10.831037,4.236822,0.829749,-0.018204,-0.557840,0.000000
3.983524,10.085974,0.602313,-0.421468,0.071807,0.903996,0.000000
4.939386,10.083812,1.412033,-0.819673,0.072888,0.568175,0.000000
4.503057,12.274249,1.528259,-0.696761,-0.544692,0.466728,0.000000
4.394415,11.613033,1.082319,-0.532157,-0.214304,0.819074,0.000000
4.116337,10.801428,0.642934,-0.476602,-0.003400,0.879113,0.000000
5.078878,10.819398,1.583511,-0.848827,-0.012385,0.528525,0.000000
4.137069,9.947805,5.113702,-0.535031,0.046718,-0.843540,0.000000
5.050603,10.066094,4.222329,-0.864937,0.081746,-0.495179,0.000000
4.595663,11.624324,4.490732,-0.801378,-0.220985,-0.555841,0.000000
4.355328,11.585274,4.730631,-0.516251,-0.200895,-0.832542,0.000000
4.079128,10.850257,5.163243,-0.502457,-0.027814,-0.864154,0.000000
5.050998,10.821112,4.235883,-0.836415,-0.013242,-0.547936,0.000000
2.880304,7.542930,0.794351,-0.000000,0.254057,0.967189,0.000000
2.892606,8.855353,0.626357,0.012655,0.120445,0.992639,0.000000
2.779112,8.372858,0.676695,-0.000000,0.080805,0.996730,0.000000
2.880304,7.516639,4.990580,-0.000000,0.267202,-0.963640,0.000000
2.945147,7.670055,4.417192,-0.000000,0.856899,-0.515484,0.000000
2.879933,8.875184,5.173978,0.020249,0.105317,-0.994232,0.000000
2.779112,8.332311,5.120923,-0.000000,0.101078,-0.994878,0.000000
2.783885,10.195480,0.315428,-0.000000,0.017054,0.999855,0.000000
2.936445,13.276028,2.260254,-0.000000,-0.997065,0.076555,0.000000
2.888363,11.232765,0.309521,-0.000000,-0.027863,0.999612,0.000000
2.875028,10.764228,0.306429,-0.000000,0.015200,0.999884,0.000000
2.884014,10.196020,5.489234,-0.000000,0.016784,-0.999859,0.000000
2.930134,13.270708,3.542972,0.000000,-0.996444,-0.084258,0.000000
2.801492,11.270033,5.476698,-0.000000,-0.048066,-0.998844,0.000000
2.794982,10.810485,5.489628,-0.000000,-0.007928,-0.999969,0.000000
1.310982,9.112494,0.994462,0.635598,0.209249,0.743122,0.000000
0.637599,9.556744,1.645166,0.839262,0.081418,0.537596,0.000000
4.310508,9.077245,0.953135,-0.613862,0.230488,0.755015,0.000000
4.938048,9.462862,1.495984,-0.792472,0.135589,0.594647,0.000000
1.449954,9.535232,4.997673,0.600804,0.089465,-0.794374,0.000000
0.681053,9.524697,4.192160,0.819787,0.097442,-0.564318,0.000000
4.104841,9.539876,5.102917,-0.533579,0.087143,-0.841249,0.000000
5.026823,9.500482,4.180491,-0.832196,0.116779,-0.542045,0.000000
0.741495,7.567987,2.932566,0.970394,0.241528,-0.000000,0.000000
0.595568,8.644361,3.000297,0.991752,0.128170,-0.000000,0.000000
1.294195,7.690809,2.864846,0.574542,0.818186,0.021737,0.000000
0.628904,8.345402,2.966027,0.995522,0.094533,-0.000000,0.000000
0.245629,10.193507,2.931723,0.999837,0.018040,-0.000000,0.000000
0.253559,11.187550,2.919313,0.998525,-0.054293,-0.000000,0.000000
2.313596,13.281118,2.935939,0.076249,-0.997052,-0.008578,0.000000
0.243105,10.618614,2.943574,0.999981,-0.006167,-0.000000,0.000000
4.943657,7.554507,2.932566,-0.968691,0.248268,-0.000000,0.000000
5.087287,8.661032,3.005241,-0.992351,0.123450,-0.000000,0.000000
4.510304,7.818731,2.790390,-0.593215,0.805044,-0.000000,0.000000
5.057673,8.372437,2.966027,-0.996713,0.081015,-0.000000,0.000000
5.435524,10.186732,2.934113,-0.999770,0.021428,-0.000000,0.000000
5.427251,11.278577,2.942430,-0.998688,-0.051209,0.000000,0.000000
3.490270,13.274188,2.801026,-0.082561,-0.996586,-0.000000,0.000000
5.439940,10.607127,2.940757,-1.000000,-0.000423,-0.000000,0.000000
0.256570,9.664105,2.907057,0.999615,0.027738,-0.000000,0.000000
5.418418,9.545568,2.935941,-0.999394,0.034808,-0.000000,0.000000
2.932256,13.295274,2.995469,0.002166,-0.999985,-0.004982,0.000000
2.809634,9.684252,0.324557,-0.000000,0.020167,0.999797,0.000000
2.866087,9.670313,5.479670,-0.000000,0.021925,-0.999760,0.000000
3.779709,0.604683,4.806949,0.546975,0.670572,-0.501149,2.000000
3.600906,0.526561,4.266270,0.552958,0.809392,-0.197791,2.000000
3.743065,3.824927,4.766803,0.564667,-0.670637,-0.481038,2.000000
3.583860,3.902496,4.220751,0.561006,-0.809104,-0.174993,2.000000
6.214276,0.542186,4.802834,-0.515178,0.696940,-0.498866,2.000000
6.658689,0.972490,4.803754,-0.678334,0.539015,-0.499326,2.000000
6.218546,3.893927,4.793717,-0.516335,-0.699354,-0.494270,2.000000
6.669940,3.455749,4.793738,-0.683243,-0.537462,-0.494280,2.000000
5.010685,0.371399,2.193109,-0.003470,0.843831,0.536597,2.000000
4.962602,0.811400,1.726642,-0.000000,0.533299,0.845927,2.000000
5.024580,-0.184087,3.898814,-0.000000,0.998860,-0.047732,2.000000
5.084299,1.846331,5.937128,-0.000000,0.023712,-0.999719,2.000000
4.964171,4.032022,2.149737,-0.000000,-0.850334,0.526244,2.000000
5.005944,3.545839,1.681167,0.002902,-0.532074,0.846693,2.000000
5.011780,4.614102,3.944432,-0.000000,-0.999305,-0.037267,2.000000
5.013317,2.497725,5.938888,0.004818,-0.018888,-0.999810,2.000000
3.216537,2.280957,2.144348,0.848660,-0.000000,0.528938,2.000000
3.630667,2.147361,1.722884,0.530629,0.000000,0.847604,2.000000
6.843310,2.281554,2.146394,-0.849319,-0.000000,0.527880,2.000000
6.427118,2.150310,1.723025,-0.531025,-0.000000,0.847356,2.000000
2.629109,2.212438,3.887914,0.999100,-0.000000,-0.042409,2.000000
4.743659,2.212685,5.937922,0.020864,0.000893,-0.999782,2.000000
7.429927,2.206347,3.883834,-0.999200,-0.000000,-0.039993,2.000000
5.306111,2.205038,5.939734,-0.016725,0.000783,-0.999860,2.000000
3.331102,0.689232,3.175418,0.765266,0.621592,0.167304,2.000000
3.106190,0.861327,3.709626,0.784699,0.619042,-0.032150,2.000000
3.336832,3.743000,3.173903,0.763358,-0.623721,0.168099,2.000000
3.104114,3.561831,3.704457,0.785660,-0.617951,-0.029565,2.000000
6.701267,0.669682,3.124002,-0.752954,0.629143,0.192976,2.000000
6.576669,0.546307,3.117157,-0.632046,0.749675,0.196227,2.000000
6.685301,3.776784,3.115761,-0.745314,-0.636902,0.197135,2.000000
6.574508,3.885671,3.111542,-0.630905,-0.749893,0.199047,2.000000
2.622922,2.197837,3.571764,0.999959,-0.000000,-0.009084,2.000000
7.434597,2.236312,3.557675,-0.999998,-0.000000,-0.002182,2.000000
5.011241,-0.190948,3.570153,-0.000000,0.999967,-0.008077,2.000000
5.011656,4.621225,3.562832,-0.000000,-0.999991,-0.004366,2.000000
5.004185,2.190828,1.138025,-0.000000,-0.000000,1.000000,2.000000
5.076723,2.161216,5.940798,0.004113,0.000621,-0.999991,2.000000
3.307153,0.819773,4.240685,0.822572,0.537772,-0.184870,2.000000
3.395981,0.992459,4.804402,0.679977,0.536428,-0.499876,2.000000
3.288860,3.602635,4.195902,0.830373,-0.533024,-0.162378,2.000000
3.376590,3.446473,4.766661,0.689120,-0.542019,-0.480968,2.000000
6.722123,0.769420,4.231472,-0.808290,0.560584,-0.180038,2.000000
6.410802,0.462788,4.197832,-0.529580,0.832458,-0.162970,2.000000
6.739309,3.652274,4.197495,-0.815413,-0.555472,-0.162948,2.000000
6.423282,3.961947,4.194351,-0.535368,-0.829095,-0.161191,2.000000
5.094762,0.407927,2.135939,-0.000000,0.846055,0.533095,2.000000
5.050664,0.885027,1.680532,-0.001912,0.531653,0.846960,2.000000
5.046084,-0.180919,3.965109,-0.000000,0.998860,-0.047731,2.000000
5.014724,1.932789,5.938575,0.004931,0.019741,-0.999793,2.000000
5.045990,4.067055,2.205390,0.004177,-0.847686,0.530482,2.000000
5.094047,3.621028,1.728254,-0.000000,-0.534531,0.845149,2.000000
5.035135,4.616579,3.878011,-0.000000,-0.999305,-0.037267,2.000000
5.085128,2.584675,5.937495,-0.000000,-0.022911,-0.999738,2.000000
3.181609,2.198679,2.199351,0.845773,-0.004548,0.533524,2.000000
3.706305,2.237579,1.676010,0.528114,-0.002940,0.849168,2.000000
6.880113,2.196196,2.204965,-0.847589,-0.002716,0.530647,2.000000
6.353880,2.237669,1.677415,-0.529474,-0.001797,0.848324,2.000000
2.631912,2.229386,3.953953,0.999100,-0.000000,-0.042409,2.000000
4.665655,2.269223,5.936340,0.021510,-0.000000,-0.999769,2.000000
7.427255,2.236232,3.950625,-0.999200,-0.000000,-0.039993,2.000000
5.384707,2.273988,5.938457,-0.017417,0.000000,-0.999848,2.000000
3.646307,0.313827,3.680093,0.631983,0.774789,-0.017283,2.000000
3.509219,0.511277,3.179285,0.617728,0.768829,0.165269,2.000000
3.623187,4.095336,3.653153,0.644078,-0.764951,-0.003788,2.000000
3.500605,3.907883,3.180925,0.622302,-0.765306,0.164462,2.000000
6.335537,0.250220,3.672619,-0.594372,0.804076,-0.013546,2.000000
6.947769,0.846415,3.614805,-0.782830,0.622050,0.015189,2.000000
6.334952,4.181244,3.649382,-0.593959,-0.804493,-0.001902,2.000000
6.954420,3.577188,3.617668,-0.785893,-0.618210,0.013758,2.000000
2.623755,2.230832,3.663495,0.999959,-0.000000,-0.009084,2.000000
7.434396,2.197467,3.649548,-0.999998,-0.000000,-0.002182,2.000000
5.046911,-0.190209,3.661682,-0.000000,0.999967,-0.008077,2.000000
5.046473,4.620825,3.654311,0.000000,-0.999990,-0.004366,2.000000
5.054499,2.241225,1.138025,-0.000000,-0.000000,1.000000,2.000000
4.965518,2.272629,5.940423,0.003991,0.000743,-0.999992,2.000000
1.471747,3.065726,0.923203,0.626326,0.063899,0.776938,3.000000
1.022164,2.795474,1.396453,0.748393,0.127204,0.650943,2.000000
1.514637,3.849159,0.839474,0.585017,0.035171,0.810258,3.000000
0.789667,3.847422,1.575377,0.819431,0.036039,0.572044,3.000000
1.452857,3.371557,0.917639,0.626991,0.044325,0.777764,3.000000
0.860861,3.367522,1.520830,0.790113,0.046342,0.611207,3.000000
1.117522,1.879269,4.456537,0.773325,0.109822,-0.624425,2.000000
1.087685,2.817245,4.509654,0.752580,0.092573,-0.651962,2.000000
0.749516,2.932003,4.062240,0.860117,0.061943,-0.506321,3.000000
1.353145,3.985318,4.838175,0.612974,0.043640,-0.788897,3.000000
0.684593,3.855073,4.035722,0.867182,0.032214,-0.496948,3.000000
1.228225,3.350068,4.702220,0.681842,0.055069,-0.729424,3.000000
0.702119,3.378276,4.028258,0.862282,0.040965,-0.504770,3.000000
1.091469,2.645096,4.498557,0.755077,0.025550,-0.655139,2.000000
1.591095,4.780091,0.745008,0.530649,0.028998,0.847095,3.000000
0.702296,4.779259,1.643334,0.852997,0.029415,0.521086,3.000000
1.645934,5.705013,0.678064,0.489939,0.025832,0.871374,3.000000
0.639149,5.705127,1.693108,0.875502,0.025775,0.482526,3.000000
1.621042,5.243474,0.708766,0.508738,0.026955,0.860500,3.000000
0.668040,5.242669,1.670748,0.865474,0.027357,0.500206,3.000000
1.687075,6.626822,0.625729,0.457317,0.024221,0.888974,3.000000
0.587361,6.626182,1.734356,0.892803,0.024542,0.449778,3.000000
0.961715,8.087887,1.494474,0.847358,-0.232908,0.477219,3.000000
0.990102,8.722006,1.907279,0.728690,-0.593261,0.342128,3.000000
1.706312,7.088607,0.602128,0.442256,0.022976,0.896595,3.000000
0.565259,7.087997,1.750981,0.899722,0.023281,0.435841,3.000000
1.665867,6.164965,0.651783,0.473861,0.025503,0.880230,3.000000
0.613080,6.165031,1.713245,0.884238,0.025470,0.466342,3.000000
1.438681,4.914485,4.938354,0.560632,0.038351,-0.827177,3.000000
0.650608,4.781113,4.035368,0.876450,0.028488,-0.480650,3.000000
1.514258,5.843560,5.019269,0.513501,0.033108,-0.857450,3.000000
0.618305,5.705887,4.031386,0.884942,0.025395,-0.465009,3.000000
1.478166,5.379712,4.981335,0.536195,0.035385,-0.843352,3.000000
0.634120,5.243921,4.033698,0.880850,0.026731,-0.472640,3.000000
1.590452,6.764773,5.091218,0.466126,0.031795,-0.884147,3.000000
0.587311,6.626133,4.025058,0.892826,0.024566,-0.449732,3.000000
1.844682,8.719611,4.726401,0.358816,-0.592077,-0.721593,3.000000
0.995207,8.716990,3.869202,0.726832,-0.590766,-0.350300,3.000000
1.623322,7.228498,5.121583,0.445051,0.029579,-0.895016,3.000000
0.571881,7.087763,4.020767,0.896734,0.023398,-0.441951,3.000000
1.553033,6.302881,5.056517,0.489475,0.033094,-0.871389,3.000000
0.602791,6.165361,4.028399,0.888892,0.025305,-0.457417,3.000000
4.215996,3.065499,0.912190,-0.620058,0.064012,0.781940,3.000000
4.670856,2.786400,1.386273,-0.744786,0.128038,0.654905,2.000000
4.175320,3.849438,0.831109,-0.579720,0.035031,0.814062,3.000000
4.911578,3.848660,1.574438,-0.819876,0.035421,0.571445,3.000000
4.235043,3.371626,0.906602,-0.620722,0.044290,0.782779,3.000000
4.839667,3.369741,1.518132,-0.790206,0.045233,0.611170,3.000000
4.578752,1.883177,4.460511,-0.771992,0.107868,-0.626412,2.000000
4.605878,2.818607,4.515850,-0.750226,0.090411,-0.654971,2.000000
4.940246,2.925528,4.078272,-0.855507,0.061230,-0.514158,3.000000
4.341388,3.981972,4.841147,-0.611108,0.045314,-0.790250,3.000000
5.008124,3.852982,4.047709,-0.863753,0.033259,-0.502817,3.000000
4.469224,3.350621,4.702971,-0.681492,0.054792,-0.729772,3.000000
4.990165,3.378500,4.040778,-0.858629,0.040853,-0.510967,3.000000
4.603900,2.640763,4.502153,-0.753536,0.026235,-0.656883,2.000000
4.101442,4.780274,0.739501,-0.526639,0.028907,0.849597,3.000000
4.999285,4.780003,1.643989,-0.853648,0.029043,0.520039,3.000000
4.048491,5.705132,0.674276,-0.486875,0.025772,0.873091,3.000000
5.062689,5.705444,1.695020,-0.876323,0.025617,0.481042,3.000000
4.072270,5.243616,0.704066,-0.505116,0.026884,0.862633,3.000000
5.033674,5.243473,1.672044,-0.866212,0.026955,0.498948,3.000000
4.006747,6.626938,0.621915,-0.453953,0.024163,0.890698,3.000000
5.114716,6.626672,1.737169,-0.893784,0.024296,0.447839,3.000000
4.738134,8.089537,1.494352,-0.847133,-0.233720,0.477222,3.000000
4.710872,8.723470,1.910854,-0.729106,-0.593980,0.339989,3.000000
3.987938,7.088710,0.598699,-0.439107,0.022924,0.898142,3.000000
5.136927,7.088514,1.754367,-0.900778,0.023023,0.433669,3.000000
4.028461,6.165083,0.648095,-0.470749,0.025444,0.881900,3.000000
5.088872,6.165226,1.715588,-0.885136,0.025372,0.464640,3.000000
4.253822,4.914707,4.943276,-0.557636,0.038240,-0.829205,3.000000
5.043189,4.781467,4.047141,-0.873571,0.028311,-0.485872,3.000000
4.178646,5.842824,5.023636,-0.510432,0.033476,-0.859266,3.000000
5.077463,5.705945,4.039788,-0.883014,0.025366,-0.468660,3.000000
4.214839,5.379502,4.985726,-0.533328,0.035490,-0.845164,3.000000
5.060469,5.244207,4.044110,-0.878360,0.026588,-0.477260,3.000000
4.103832,6.764853,5.094699,-0.463435,0.031755,-0.885562,3.000000
5.110987,6.626659,4.028972,-0.892099,0.024303,-0.451185,3.000000
3.851959,8.720457,4.727687,-0.357117,-0.592486,-0.722100,3.000000
4.704999,8.717647,3.868081,-0.726962,-0.591081,-0.349500,3.000000
4.072779,7.228985,5.124025,-0.443113,0.029336,-0.895986,3.000000
5.127652,7.088493,4.022179,-0.896593,0.023033,-0.442256,3.000000
4.140152,6.302429,5.060676,-0.486390,0.033320,-0.873106,3.000000
5.094250,6.165591,4.034630,-0.887569,0.025190,-0.459985,3.000000
2.800846,0.658771,0.894549,-0.000000,0.318825,0.947814,2.000000
2.924554,2.034977,0.664636,-0.000000,0.023674,0.999720,2.000000
2.779578,1.346548,0.729643,-0.000000,0.138241,0.990399,2.000000
2.768866,1.205509,1.466444,0.000000,0.858402,0.512978,2.000000
2.830499,3.050603,0.417251,-0.000000,0.014668,0.999892,3.000000
2.816526,3.890166,0.404936,-0.000000,0.014667,0.999892,3.000000
2.822565,3.430872,0.411673,-0.000000,0.014667,0.999892,3.000000
2.931363,2.451280,0.652469,-0.000000,0.041671,0.999131,2.000000
2.800846,0.614248,4.854457,-0.000000,0.341086,-0.940032,2.000000
2.782675,0.272823,4.340010,-0.000000,0.851249,-0.524763,2.000000
2.876346,2.080823,5.362125,-0.000000,0.030256,-0.999542,2.000000
2.916882,1.080421,5.004434,-0.000000,0.264846,-0.964291,2.000000
2.815415,2.984806,5.375390,-0.000000,0.008053,-0.999968,3.000000
2.809065,3.903394,5.382789,-0.000000,0.008053,-0.999968,3.000000
2.812240,3.444098,5.379089,-0.000000,0.008054,-0.999968,3.000000
2.818590,2.525512,5.371692,-0.000000,0.008053,-0.999968,2.000000
2.893911,4.808754,0.391461,-0.000000,0.014667,0.999892,3.000000
2.902300,5.727343,0.377987,-0.000000,0.014667,0.999892,3.000000
2.898224,5.268049,0.384724,-0.000000,0.014667,0.999892,3.000000
2.910109,6.645928,0.364512,-0.000000,0.014668,0.999892,3.000000
2.893508,7.686358,0.366304,-0.000000,-0.079508,0.996834,3.000000
2.913507,7.105219,0.357774,-0.000000,0.014670,0.999892,3.000000
2.906367,6.186637,0.371249,-0.000000,0.014667,0.999892,3.000000
2.802753,4.821978,5.390185,-0.000000,0.008055,-0.999968,3.000000
2.796700,5.740571,5.397584,-0.000000,0.008053,-0.999968,3.000000
2.799699,5.281279,5.393885,-0.000000,0.008052,-0.999968,3.000000
2.790723,6.659159,5.404982,-0.000000,0.008053,-0.999968,3.000000
2.892558,7.698635,5.396407,-0.000000,-0.085668,-0.996324,3.000000
2.787733,7.118501,5.408677,-0.000000,0.008029,-0.999968,3.000000
2.793711,6.199863,5.401282,-0.000000,0.008054,-0.999968,3.000000
1.557375,4.317408,0.786527,0.555003,0.030694,0.831282,3.000000
0.740346,4.315677,1.614151,0.838784,0.031559,0.543549,3.000000
4.133747,4.317631,0.779632,-0.550284,0.030582,0.834417,3.000000
4.961096,4.316808,1.614069,-0.839345,0.030993,0.542714,3.000000
1.395023,4.453341,4.889639,0.587229,0.039276,-0.808467,3.000000
0.667512,4.320414,4.036663,0.871860,0.029190,-0.488884,3.000000
4.296852,4.451194,4.894965,-0.583990,0.040349,-0.810757,3.000000
5.025742,4.319200,4.048790,-0.868705,0.029797,-0.494433,3.000000
0.863243,0.662897,2.831361,0.948505,0.316762,0.000000,2.000000
0.636405,2.180357,2.454659,0.983541,0.027532,0.178576,2.000000
0.700135,1.346651,2.812288,0.990406,0.138190,0.000000,2.000000
0.385820,3.177985,2.872827,0.999891,0.014761,-0.000000,3.000000
0.809467,1.779216,2.947310,0.808472,0.588535,-0.000000,2.000000
0.373047,4.043074,2.854286,0.999891,0.014763,-0.000000,3.000000
0.379829,3.583778,2.863399,0.999891,0.014764,-0.000000,3.000000
0.634559,2.583420,2.335259,0.972056,0.054123,0.228426,2.000000
0.361745,4.808563,2.837245,0.999891,0.014763,0.000000,3.000000
0.345922,5.880250,2.832760,0.999891,0.014763,-0.000000,3.000000
0.352704,5.420954,2.837239,0.999891,0.014764,-0.000000,3.000000
0.334620,6.645738,2.820742,0.999891,0.014764,0.000000,3.000000
0.335889,7.682662,2.837127,0.996981,-0.077652,-0.000000,3.000000
2.227130,9.698876,2.793473,0.098951,-0.995092,-0.000000,3.000000
0.327840,7.105052,2.817236,0.999891,0.014753,0.000000,3.000000
0.341402,6.186446,2.824607,0.999891,0.014763,0.000000,3.000000
4.836464,0.661056,2.831361,-0.948197,0.317682,-0.000000,2.000000
5.000371,1.346572,2.812288,-0.990400,0.138229,-0.000000,2.000000
5.314476,3.173311,2.871057,-0.999893,0.014630,-0.000000,3.000000
4.562318,1.446952,2.594109,-0.680866,0.720471,0.131692,2.000000
5.324966,3.890241,2.846908,-0.999893,0.014630,-0.000000,3.000000
5.318246,3.430943,2.853142,-0.999893,0.014632,-0.000000,3.000000
5.066861,2.576554,2.342442,-0.972888,0.054841,0.224680,2.000000
5.338408,4.808827,2.836772,-0.999893,0.014631,-0.000000,3.000000
5.354089,5.880512,2.832428,-0.999893,0.014632,-0.000000,3.000000
5.345128,5.268124,2.832410,-0.999893,0.014630,-0.000000,3.000000
5.367530,6.799099,2.824215,-0.999893,0.014632,-0.000000,3.000000
5.363895,7.682893,2.836845,-0.996973,-0.077744,-0.000000,3.000000
5.374251,7.258394,2.820338,-0.999893,0.014632,-0.000000,3.000000
5.360809,6.339809,2.828326,-0.999893,0.014630,-0.000000,3.000000
0.366266,4.502367,2.847588,0.999891,0.014763,-0.000000,3.000000
5.331687,4.349531,2.841633,-0.999893,0.014632,-0.000000,3.000000
2.829819,-0.790336,2.860544,-0.000000,1.000000,-0.000000,2.000000
2.889131,4.349458,0.398198,-0.000000,0.014668,0.999892,3.000000
2.805890,4.362691,5.386487,-0.000000,0.008052,-0.999968,3.000000
1.313470,2.782243,1.098117,0.674648,0.126827,0.727163,2.000000
0.866627,3.070157,1.540395,0.789095,0.068675,0.610420,3.000000
0.800111,3.960450,1.550580,0.837881,0.056075,0.542965,3.000000
1.454926,3.460295,0.909424,0.583663,0.076505,0.808384,3.000000
0.856995,3.462687,1.516429,0.817635,0.075309,0.570790,3.000000
1.190137,2.100416,4.577437,0.756674,0.082256,-0.648598,2.000000
1.309388,3.113671,4.765899,0.682739,0.020170,-0.730384,3.000000
0.707470,3.088291,4.009486,0.861471,0.059608,-0.504295,3.000000
1.373598,3.880268,4.850488,0.642624,0.019616,-0.765930,3.000000
0.716372,3.997939,4.101857,0.871624,0.037330,-0.488752,3.000000
1.380006,3.574068,4.848022,0.642624,0.019619,-0.765930,3.000000
0.734854,3.521464,4.097195,0.866717,0.045920,-0.496682,3.000000
1.171897,2.499367,4.586532,0.759077,0.021126,-0.650658,2.000000
1.554188,4.903908,0.762225,0.508438,0.043639,0.859992,3.000000
0.720289,4.904882,1.604161,0.864992,0.043152,0.499927,3.000000
1.597772,5.837674,0.699887,0.473707,0.036051,0.879944,3.000000
0.660360,5.837854,1.645149,0.883952,0.035960,0.466192,3.000000
1.578202,5.372118,0.728569,0.489726,0.039181,0.870995,3.000000
0.688643,5.373057,1.625500,0.875137,0.038712,0.482324,3.000000
1.637168,6.761471,0.646530,0.442125,0.033446,0.896330,3.000000
0.608835,6.762375,1.682052,0.899476,0.032994,0.435722,3.000000
1.867614,8.723374,1.026066,0.346179,-0.593946,0.726215,3.000000
1.460441,8.085508,0.994520,0.478923,-0.231710,0.846725,3.000000
1.650669,7.227126,0.625017,0.430104,0.030266,0.902272,3.000000
0.588805,7.227965,1.692981,0.904791,0.029846,0.424809,3.000000
1.618656,6.297460,0.672048,0.457158,0.035804,0.888664,3.000000
0.632853,6.297700,1.666051,0.892503,0.035684,0.449627,3.000000
1.464500,4.800753,4.952551,0.587580,0.018668,-0.808951,3.000000
0.680980,4.924190,4.100656,0.880670,0.033498,-0.472544,3.000000
1.548007,5.721412,5.036478,0.536448,0.017632,-0.843749,3.000000
0.647771,5.849613,4.096691,0.888774,0.030081,-0.457357,3.000000
1.508311,5.261260,4.997369,0.560953,0.018062,-0.827651,3.000000
0.664206,5.387525,4.099269,0.884789,0.031478,-0.464928,3.000000
1.623000,6.641439,5.105532,0.489673,0.016913,-0.871742,3.000000
0.615239,6.769768,4.089782,0.896595,0.029297,-0.441882,3.000000
0.964639,8.089426,4.268922,0.846955,-0.233713,-0.477542,3.000000
1.460505,8.079389,4.767393,0.479110,-0.228663,-0.847447,3.000000
1.660471,7.101516,5.137331,0.466298,0.016522,-0.884474,3.000000
0.599028,7.231310,4.084914,0.900478,0.028173,-0.433989,3.000000
1.584211,6.181398,5.071088,0.513706,0.017286,-0.857792,3.000000
0.631488,6.309052,4.093521,0.892693,0.030008,-0.449665,3.000000
4.376768,2.777780,1.087861,-0.669667,0.127825,0.731578,2.000000
4.833971,3.068759,1.537536,-0.789243,0.066906,0.610425,3.000000
4.197878,3.960477,0.840482,-0.549676,0.056061,0.833495,3.000000
4.901469,3.961361,1.550233,-0.838449,0.055619,0.542135,3.000000
4.235096,3.462668,0.899930,-0.578429,0.075318,0.812248,3.000000
4.844344,3.464000,1.515072,-0.818101,0.074652,0.570208,3.000000
4.506338,2.102841,4.579959,-0.755722,0.081043,-0.649858,2.000000
4.387979,3.113422,4.766642,-0.682376,0.020294,-0.730719,3.000000
4.985010,3.088066,4.022326,-0.857937,0.057252,-0.510555,3.000000
4.324828,3.880021,4.850307,-0.642719,0.019740,-0.765848,3.000000
4.976175,3.995380,4.113471,-0.868443,0.038609,-0.494284,3.000000
4.318362,3.573825,4.847841,-0.642719,0.019740,-0.765848,3.000000
4.957213,3.521199,4.108993,-0.863314,0.046053,-0.502562,3.000000
4.524253,2.499106,4.588928,-0.758045,0.021256,-0.651856,2.000000
4.139147,4.904780,0.756996,-0.504827,0.043203,0.862139,3.000000
4.981594,4.905379,1.605306,-0.865729,0.042904,0.498670,3.000000
4.096561,5.837817,0.695845,-0.470597,0.035979,0.881614,3.000000
5.041799,5.837940,1.647504,-0.884850,0.035918,0.464490,3.000000
4.116244,5.373102,0.724318,-0.486672,0.038689,0.872728,3.000000
5.013395,5.373601,1.627321,-0.875963,0.038440,0.480844,3.000000
4.057092,6.761922,0.642725,-0.438980,0.033220,0.897883,3.000000
5.093595,6.762619,1.685365,-0.900530,0.032872,0.433549,3.000000
3.827791,8.724808,1.024441,-0.343688,-0.594649,0.726823,3.000000
4.238948,8.087282,0.994099,-0.478675,-0.232561,0.846632,3.000000
4.044248,7.227676,0.621699,-0.427288,0.029990,0.903618,3.000000
5.113731,7.228267,1.696815,-0.905908,0.029695,0.422433,3.000000
4.075168,6.297348,0.667894,-0.453794,0.035860,0.890385,3.000000
5.069440,6.297654,1.668854,-0.893478,0.035708,0.447686,3.000000
4.227504,4.800415,4.957661,-0.584362,0.018837,-0.811274,3.000000
5.013033,4.923715,4.111154,-0.878170,0.033736,-0.477157,3.000000
4.145192,5.720775,5.040463,-0.533578,0.017951,-0.845560,3.000000
5.048865,5.848287,4.102909,-0.887431,0.030744,-0.459914,3.000000
4.184329,5.260662,5.001815,-0.557950,0.018360,-0.829672,3.000000
5.031054,5.386547,4.107687,-0.882847,0.031967,-0.468571,3.000000
4.070393,6.640877,5.109327,-0.486588,0.017194,-0.873462,3.000000
5.084138,6.768879,4.091322,-0.896434,0.029742,-0.442178,3.000000
4.735371,8.089476,4.269027,-0.846941,-0.233724,-0.477561,3.000000
4.239031,8.081150,4.767495,-0.478955,-0.229507,-0.847307,3.000000
4.034014,7.100971,5.140450,-0.463603,0.016794,-0.885884,3.000000
5.101677,7.230618,4.083880,-0.900886,0.028520,-0.433117,3.000000
4.108905,6.180799,5.075105,-0.510639,0.017586,-0.859615,3.000000
5.066527,6.307886,4.097486,-0.891945,0.030591,-0.451107,3.000000
2.870504,0.745527,0.865366,-0.000000,0.318825,0.947814,2.000000
2.779565,2.188075,0.661011,-0.000000,0.023674,0.999720,2.000000
2.899577,1.499646,0.708274,-0.000000,0.138241,0.990399,2.000000
2.831523,1.174929,1.513916,0.014276,0.850438,0.525882,2.000000
2.860155,3.164188,0.415585,-0.000000,0.014668,0.999892,3.000000
2.877930,4.043265,0.402690,-0.000000,0.014667,0.999892,3.000000
2.869834,3.583971,0.409427,-0.000000,0.014667,0.999892,3.000000
2.769541,2.606529,0.646534,0.003144,0.038332,0.999260,2.000000
2.870504,0.701004,4.885936,-0.000000,0.341086,-0.940032,2.000000
2.866678,0.230401,4.271195,-0.000000,0.851249,-0.524762,2.000000
2.832023,2.204416,5.365867,-0.000000,0.030256,-0.999542,2.000000
2.800647,1.220603,5.042935,-0.000000,0.264846,-0.964291,2.000000
2.879444,3.137904,5.376623,-0.000000,0.008053,-0.999968,3.000000
2.885968,4.056493,5.384021,-0.000000,0.008053,-0.999968,3.000000
2.882706,3.597197,5.380322,-0.000000,0.008054,-0.999968,3.000000
2.876183,2.678610,5.372924,-0.000000,0.008053,-0.999968,2.000000
2.811426,4.961853,0.389215,-0.000000,0.014667,0.999892,3.000000
2.802331,5.880441,0.375741,-0.000000,0.014667,0.999892,3.000000
2.806645,5.421147,0.382478,-0.000000,0.014667,0.999892,3.000000
2.794184,6.799026,0.362266,-0.000000,0.014668,0.999892,3.000000
2.937312,9.698812,2.257242,-0.000000,-0.995065,0.099230,3.000000
2.786952,7.772944,0.373210,-0.000000,-0.079508,0.996834,3.000000
2.790440,7.258317,0.355528,-0.000000,0.014670,0.999892,3.000000
2.798252,6.339735,0.369004,-0.000000,0.014667,0.999892,3.000000
2.892520,4.975076,5.391419,-0.000000,0.008055,-0.999968,3.000000
2.899146,5.893669,5.398817,-0.000000,0.008053,-0.999968,3.000000
2.895837,5.434377,5.395118,-0.000000,0.008052,-0.999968,3.000000
2.905747,6.812257,5.406215,-0.000000,0.008053,-0.999968,3.000000
2.936768,9.698778,3.504148,0.000000,-0.995103,-0.098842,3.000000
2.787836,7.785178,5.388965,-0.000000,-0.085668,-0.996324,3.000000
2.909048,7.271599,5.409906,-0.000000,0.008029,-0.999968,3.000000
2.902447,6.352961,5.402515,-0.000000,0.008054,-0.999968,3.000000
1.525184,4.436821,0.801810,0.530272,0.047536,0.846494,3.000000
0.757553,4.438329,1.577818,0.852432,0.046782,0.520741,3.000000
4.167393,4.438267,0.795629,-0.526282,0.046813,0.849021,3.000000
4.944193,4.439189,1.578271,-0.853091,0.046352,0.519700,3.000000
1.422343,4.340403,4.906080,0.613446,0.019196,-0.789504,3.000000
0.698377,4.463132,4.101676,0.876287,0.034380,-0.480561,3.000000
4.272334,4.340225,4.909185,-0.611622,0.019285,-0.790915,3.000000
4.994755,4.461432,4.113293,-0.873379,0.035231,-0.485765,3.000000
0.834271,0.749653,2.904025,0.948505,0.316762,-0.000000,2.000000
0.653401,1.659358,2.989899,0.978736,0.205025,-0.006373,2.000000
0.679974,1.507115,2.978280,0.991685,0.128049,-0.012822,2.000000
0.387290,3.078384,2.898608,0.999891,0.014761,-0.000000,3.000000
1.104005,1.491476,2.585242,0.697533,0.703393,0.136696,2.000000
0.375308,3.889975,2.912985,0.999891,0.014763,-0.000000,3.000000
0.382089,3.430679,2.907127,0.999891,0.014764,-0.000000,3.000000
0.600601,2.338726,2.593731,0.978764,0.102185,0.177708,2.000000
0.359485,4.961661,2.917387,0.999891,0.014763,-0.000000,3.000000
0.348183,5.727152,2.930828,0.999891,0.014763,-0.000000,3.000000
0.354964,5.267856,2.926785,0.999891,0.014764,-0.000000,3.000000
0.332360,6.798836,2.934897,0.999891,0.014764,-0.000000,3.000000
0.342634,7.769267,2.942631,0.996981,-0.077652,-0.000000,3.000000
0.325581,7.258151,2.938780,0.999891,0.014753,-0.000000,3.000000
0.339141,6.339543,2.930812,0.999891,0.014763,-0.000000,3.000000
4.865530,0.747812,2.904025,-0.948197,0.317682,-0.000000,2.000000
5.047008,1.663344,2.993850,-0.979137,0.203032,-0.008349,2.000000
5.020584,1.510135,2.982190,-0.991852,0.126538,-0.014777,2.000000
5.312946,3.068772,2.898026,-0.999893,0.014630,-0.000000,3.000000
4.860350,1.726431,2.946765,-0.793547,0.608509,-0.000000,2.000000
5.327207,4.043339,2.906219,-0.999893,0.014630,-0.000000,3.000000
5.320486,3.584041,2.897740,-0.999893,0.014632,-0.000000,3.000000
5.340648,4.961925,2.917820,-0.999893,0.014631,-0.000000,3.000000
5.351848,5.727414,2.931209,-0.999893,0.014632,-0.000000,3.000000
5.347368,5.421222,2.922737,-0.999893,0.014630,-0.000000,3.000000
5.365290,6.646001,2.939051,-0.999893,0.014632,-0.000000,3.000000
5.357138,7.769543,2.942753,-0.996973,-0.077744,0.000000,3.000000
3.472545,9.699015,2.793270,-0.098852,-0.995102,-0.000000,3.000000
5.372011,7.105296,2.942465,-0.999893,0.014632,-0.000000,3.000000
5.358569,6.186711,2.935265,-0.999893,0.014630,-0.000000,3.000000
0.368527,4.349269,2.917667,0.999891,0.014763,-0.000000,3.000000
5.333927,4.502629,2.912510,-0.999893,0.014632,-0.000000,3.000000
2.870411,-0.790336,2.901729,-0.000000,1.000000,-0.000000,2.000000
2.816530,4.502556,0.395953,-0.000000,0.014668,0.999892,3.000000
2.889230,4.515789,5.387720,-0.000000,0.008052,-0.999968,3.000000
0.540305,0.546324,1.537816,0.460663,0.746403,0.480284,2.000000
1.351194,0.075726,1.745427,0.121786,0.895913,0.427209,2.000000
0.540055,0.546736,4.024063,0.460788,0.746205,-0.480471,2.000000
1.350968,0.075861,3.816368,0.121899,0.895850,-0.427309,2.000000
0.662349,3.831948,1.316550,0.403465,-0.703081,0.585571,2.000000
0.662352,3.691326,1.175920,0.403464,-0.585601,0.703057,2.000000
0.662365,3.831894,4.244934,0.403458,-0.703061,-0.585600,2.000000
0.662362,3.691259,4.385561,0.403459,-0.585572,-0.703083,2.000000
2.395521,1.194703,0.633080,-0.140522,0.425629,0.893920,2.000000
2.392179,0.078993,1.747730,-0.138109,0.894164,0.425907,2.000000
2.394971,1.196402,4.929307,-0.140193,0.424789,-0.894372,2.000000
2.392422,0.079114,3.814027,-0.138231,0.894107,-0.425987,2.000000
2.395578,3.259780,0.633229,-0.140550,-0.425765,0.893851,2.000000
3.128156,3.678565,1.225759,-0.452733,-0.579099,0.677995,2.000000
2.395277,3.259653,4.928309,-0.140346,-0.425710,-0.893909,2.000000
3.127808,3.679123,4.335459,-0.452527,-0.579383,-0.677890,2.000000
1.802437,1.170109,0.610175,0.000818,0.430281,0.902695,2.000000
1.802434,0.056701,1.723426,0.000819,0.902632,0.430412,2.000000
1.802424,1.171857,4.952129,0.000824,0.429419,-0.903105,2.000000
1.802429,0.056811,3.838407,0.000822,0.902581,-0.430520,2.000000
1.802438,3.284383,0.610318,0.000817,-0.430420,0.902628,2.000000
1.916220,4.370792,1.667155,0.001054,-0.902850,0.429955,2.000000
1.802434,3.284222,4.951169,0.000819,-0.430351,-0.902662,2.000000
1.916218,4.370696,3.894451,0.001055,-0.902808,-0.430042,2.000000
-0.415383,2.291348,1.573067,0.894806,-0.000000,0.446455,2.000000
1.383603,2.180699,0.402823,0.058057,0.000000,0.998313,2.000000
4.131672,2.291421,1.650176,-0.913078,-0.000000,0.407784,2.000000
2.330570,2.180609,0.403735,-0.067099,-0.000000,0.997746,2.000000
-0.433819,2.237438,3.954512,0.884982,-0.015263,-0.465376,2.000000
1.383609,2.180709,5.158594,0.058053,-0.000000,-0.998313,2.000000
4.148793,2.216684,3.875953,-0.907175,-0.010301,-0.420627,2.000000
2.330602,2.180615,5.157694,-0.067008,-0.000000,-0.997752,2.000000
-0.437837,1.056663,2.749848,0.883166,0.469061,-0.000013,2.000000
1.383601,-0.150787,2.734339,0.058057,0.998313,-0.000000,2.000000
-0.415367,3.434775,2.716469,0.894798,-0.446472,-0.000000,2.000000
1.383609,4.604984,2.734309,0.058053,-0.998314,-0.000000,2.000000
4.136475,1.097443,2.716434,-0.913274,0.407346,-0.000000,2.000000
2.247782,-0.155541,2.811851,-0.065911,0.997826,-0.000000,2.000000
4.119352,3.380663,2.716397,-0.907848,-0.419299,-0.000000,2.000000
2.249272,4.609476,2.811740,-0.067862,-0.997695,-0.000000,2.000000
-0.690087,2.431668,2.727175,0.997898,-0.064808,-0.000001,2.000000
1.803012,-0.165276,2.734271,0.000530,1.000000,-0.000000,2.000000
1.803012,4.619472,2.827212,0.000530,-1.000000,-0.000000,2.000000
1.917270,2.180701,0.388274,0.000529,-0.000000,1.000000,2.000000
1.917268,2.180709,5.173143,0.000530,-0.000000,-1.000000,2.000000
1.351260,1.192102,0.629194,0.121753,0.427080,0.895979,2.000000
0.540292,0.984316,1.099860,0.460669,0.480236,0.746430,2.000000
1.351514,1.193823,4.933132,0.121626,0.426231,-0.896401,2.000000
0.539956,0.984643,4.461686,0.460837,0.480078,-0.746428,2.000000
1.351210,3.262383,0.629342,0.121778,-0.427217,0.895911,2.000000
1.351255,4.378555,1.745603,0.121756,-0.895953,0.427135,2.000000
1.351254,3.262229,4.932151,0.121756,-0.427149,-0.895946,2.000000
1.351217,4.378458,3.816004,0.121775,-0.895908,-0.427224,2.000000
3.121167,0.669840,1.324666,-0.448050,0.679150,0.581384,2.000000
3.121993,0.786097,1.210279,-0.447722,0.573870,0.685724,2.000000
3.121211,0.669721,4.236790,-0.447987,0.679215,-0.581355,2.000000
3.122017,0.785777,4.351028,-0.447702,0.574035,-0.685600,2.000000
3.128670,3.790402,1.338762,-0.452525,-0.682166,0.574344,2.000000
3.128375,3.791033,4.222263,-0.452293,-0.682489,-0.574144,2.000000
2.397804,4.374162,3.813211,-0.142128,-0.893644,-0.425676,2.000000
1.916218,1.113665,0.636947,0.001055,0.429894,0.902879,2.000000
1.916218,0.083485,1.666978,0.001055,0.902815,0.430028,2.000000
1.916197,1.115425,4.925430,0.001065,0.429025,-0.903292,2.000000
1.916189,0.083584,3.894817,0.001069,0.902773,-0.430116,2.000000
1.916219,3.340827,0.637101,0.001054,-0.430033,0.902812,2.000000
1.802433,4.397573,1.723609,0.000820,-0.902668,0.430337,2.000000
1.916218,3.340671,4.924390,0.001055,-0.429966,-0.902845,2.000000
1.802434,4.397481,3.838003,0.000819,-0.902625,-0.430427,2.000000
-0.433922,2.237296,1.607122,0.885033,-0.015195,0.465280,2.000000
1.478654,2.258010,0.397295,0.058057,-0.000000,0.998313,2.000000
4.148186,2.216513,1.684686,-0.906989,-0.010218,0.421032,2.000000
2.248675,2.258131,0.398228,-0.067099,-0.000000,0.997746,2.000000
-0.415369,2.291347,3.988380,0.894799,-0.000000,-0.446469,2.000000
1.478660,2.258007,5.164122,0.058053,-0.000000,-0.998314,2.000000
4.132411,2.291417,3.910207,-0.913310,-0.000000,-0.407266,2.000000
2.248601,2.258126,5.163201,-0.067008,-0.000000,-0.997752,2.000000
-0.399765,0.984980,2.834315,0.883172,0.469049,-0.000000,2.000000
1.478652,-0.156314,2.811728,0.058057,0.998313,-0.000000,2.000000
-0.445815,3.373750,2.811636,0.894804,-0.446459,-0.000010,2.000000
1.478660,4.610512,2.811619,0.058053,-0.998313,-0.000000,2.000000
4.163232,1.157294,2.810921,-0.913015,0.407926,0.000445,2.000000
2.331160,-0.150033,2.734250,-0.065911,0.997826,-0.000000,2.000000
4.147068,3.320789,2.810855,-0.907586,-0.419866,0.000441,2.000000
-0.697736,2.313895,2.844973,0.997898,-0.064812,0.000002,2.000000
1.917268,-0.165336,2.827255,0.000530,1.000000,-0.000000,2.000000
1.917268,4.619533,2.734311,0.000530,-1.000000,-0.000000,2.000000
1.803015,2.273603,0.388334,0.000529,-0.000000,1.000000,2.000000
1.803012,2.273597,5.173082,0.000530,-0.000000,-1.000000,2.000000
-0.146022,2.769175,0.473131,0.847729,0.530429,0.000000,3.000000
0.310335,2.313386,0.473433,0.529340,0.848410,-0.000000,3.000000
-0.146269,5.412608,0.473239,0.848139,-0.529774,-0.000000,3.000000
0.308847,5.867910,0.473439,0.530150,-0.847904,-0.000000,3.000000
3.406736,2.770205,0.473138,-0.847971,0.530042,-0.000000,3.000000
3.059657,2.408733,0.241095,-0.607470,0.779599,0.152337,3.000000
3.407251,5.412684,0.473246,-0.848116,-0.529811,-0.000000,3.000000
3.060093,5.774462,0.241393,-0.607640,-0.779490,0.152214,3.000000
1.614746,1.774584,0.478559,-0.000000,1.000000,-0.000000,3.000000
1.580051,3.635208,-1.555989,-0.000000,0.097413,0.995244,3.000000
1.571484,2.642941,2.205901,-0.000000,0.589279,-0.807930,3.000000
1.582407,1.963055,1.238146,-0.000000,0.998385,-0.056802,3.000000
1.571690,1.952836,1.082186,-0.000000,0.992203,-0.124633,3.000000
1.601214,1.995584,1.778769,-0.000000,0.997432,-0.071613,3.000000
1.611703,2.025233,2.140909,-0.000000,0.995049,-0.099383,3.000000
1.615272,6.408746,0.517385,-0.000000,-1.000000,-0.000000,3.000000
1.615411,4.491438,-1.561462,-0.000068,-0.097030,0.995281,3.000000
1.617648,5.487477,2.244207,-0.001197,-0.586471,-0.809969,3.000000
1.582407,6.220350,1.237985,-0.000000,-0.998390,-0.056721,3.000000
1.571799,6.230901,1.077695,-0.000000,-0.992485,-0.122364,3.000000
1.601214,6.187878,1.778605,-0.000000,-0.997438,-0.071531,3.000000
1.611759,6.097928,2.605428,-0.000000,-0.985178,-0.171532,3.000000
1.611703,6.158250,2.140805,-0.000000,-0.995054,-0.099331,3.000000
-0.686502,4.075666,0.478859,1.000000,-0.000000,-0.000000,3.000000
1.174478,4.041028,-1.556021,0.097268,0.000000,0.995258,3.000000
0.189297,4.032494,2.211884,0.585575,-0.000000,-0.810618,3.000000
-0.504393,4.049674,1.134122,0.998437,-0.000000,-0.055890,3.000000
-0.519594,4.045414,0.991408,0.992427,-0.000881,-0.122831,3.000000
3.947553,4.106920,0.478533,-1.000000,-0.000000,-0.000000,3.000000
2.030224,4.076524,-1.561464,-0.097016,-0.000009,0.995283,3.000000
3.026135,4.075437,2.243955,-0.586399,0.000536,-0.810022,3.000000
3.764933,4.049674,1.135817,-0.998389,-0.000000,-0.056738,3.000000
3.780546,4.043033,0.989302,-0.992536,0.000416,-0.121953,3.000000
-0.466164,4.062856,1.781005,0.997352,-0.000000,-0.072731,3.000000
-0.385825,4.100324,2.547056,0.985219,-0.000000,-0.171301,3.000000
-0.435980,4.073072,2.143967,0.994895,-0.000000,-0.100912,3.000000
3.726657,4.062856,1.778611,-0.997438,-0.000000,-0.071535,3.000000
3.646447,4.100324,2.548048,-0.985132,-0.000000,-0.171797,3.000000
3.696799,4.073072,2.142308,-0.994979,-0.000000,-0.100083,3.000000
-0.487230,4.055505,1.440726,0.998437,-0.000000,-0.055892,3.000000
3.747506,4.055505,1.442452,-0.998388,-0.000000,-0.056755,3.000000
1.588040,1.980527,1.544921,-0.000000,0.998380,-0.056889,3.000000
1.588040,6.202917,1.544678,-0.000000,-0.998387,-0.056768,3.000000
1.580448,4.041559,-1.576343,-0.000070,-0.000059,1.000000,3.000000
1.638906,4.083128,4.320272,-0.000000,-0.000000,-1.000000,3.000000
-0.052407,2.660842,0.242818,0.779291,0.608053,0.151582,3.000000
0.200887,2.407619,0.243286,0.607538,0.779708,0.151500,3.000000
-0.052604,5.520983,0.242029,0.779620,-0.607514,0.152049,3.000000
0.199650,5.773526,0.242248,0.608278,-0.779026,0.152045,3.000000
3.313062,2.662063,0.241130,-0.779436,0.607677,0.152342,3.000000
2.951656,2.315201,0.473102,-0.529905,0.848057,-0.000000,3.000000
3.313422,5.521160,0.241575,-0.779525,-0.607601,0.152191,3.000000
2.952082,5.867991,0.473108,-0.530092,-0.847940,-0.000000,3.000000
1.645360,1.774584,0.517191,-0.000000,1.000000,-0.000000,3.000000
1.646121,3.691655,-1.561482,-0.000318,0.097042,0.995280,3.000000
1.650040,2.694750,2.243342,-0.002273,0.586939,-0.809628,3.000000
1.672421,1.957241,1.135946,-0.000000,0.998385,-0.056802,3.000000
1.682131,1.941502,0.990012,-0.001987,0.992498,-0.122243,3.000000
1.666559,2.002922,1.880969,-0.000000,0.997432,-0.071613,3.000000
1.659315,2.035441,2.243109,-0.000000,0.995049,-0.099383,3.000000
1.645754,6.408746,0.478670,-0.000000,-1.000000,-0.000000,3.000000
1.680538,4.546965,-1.556047,-0.000000,-0.096951,0.995289,3.000000
1.689107,5.532118,2.211819,-0.000000,-0.585239,-0.810861,3.000000
1.672421,6.226156,1.135785,-0.000000,-0.998390,-0.056721,3.000000
1.678645,6.241701,0.989944,-0.000167,-0.992510,-0.122163,3.000000
1.666559,6.180549,1.880805,0.000000,-0.997438,-0.071531,3.000000
1.638936,6.108011,2.547518,-0.000000,-0.985178,-0.171532,3.000000
1.659315,6.148047,2.243005,0.000000,-0.995054,-0.099331,3.000000
-0.686502,4.106487,0.517796,1.000000,-0.000000,-0.000000,3.000000
1.230563,4.107017,-1.561483,0.097050,-0.000187,0.995279,3.000000
0.236834,4.107150,2.246191,0.585336,-0.000231,-0.810791,3.000000
-0.498672,4.139529,1.236322,0.998437,-0.000000,-0.055890,3.000000
-0.509051,4.150269,1.076510,0.992558,-0.000000,-0.121772,3.000000
3.947553,4.076522,0.517109,-1.000000,-0.000000,-0.000000,3.000000
2.085911,4.141713,-1.556035,-0.097006,-0.000000,0.995284,3.000000
3.074366,4.150291,2.209068,-0.586949,0.000000,-0.809624,3.000000
3.759125,4.139529,1.238017,-0.998389,-0.000000,-0.056738,3.000000
3.769689,4.150271,1.077696,-0.992474,-0.000000,-0.122452,3.000000
-0.458711,4.127933,1.883205,0.997352,-0.000000,-0.072731,3.000000
-0.375756,4.073061,2.604966,0.985219,-0.000000,-0.171301,3.000000
-0.425614,4.120609,2.246167,0.994895,-0.000000,-0.100912,3.000000
3.719327,4.127933,1.880812,-0.997438,-0.000000,-0.071535,3.000000
3.636348,4.073061,2.605958,-0.985132,-0.000000,-0.171797,3.000000
3.686520,4.120609,2.244508,-0.994979,-0.000000,-0.100083,3.000000
-0.481508,4.133735,1.542926,0.998437,-0.000000,-0.055892,3.000000
3.741696,4.133735,1.544652,-0.998388,-0.000000,-0.056755,3.000000
1.666524,1.974703,1.442721,-0.000000,0.998380,-0.056889,3.000000
1.666524,6.208727,1.442478,-0.000000,-0.998387,-0.056768,3.000000
1.680630,4.141814,-1.576330,-0.000071,-0.000060,1.000000,3.000000
1.621828,4.100308,4.320272,-0.000000,-0.000000,-1.000000,3.000000
1.992435,4.025301,0.354616,-0.000001,0.000000,1.000000,3.000000
1.959891,3.146360,4.243132,0.038616,0.591908,-0.805080,3.000000
1.992427,5.135298,0.354616,-0.000000,0.000001,1.000000,3.000000
2.222796,5.985259,4.433612,-0.003331,-0.495668,-0.868506,3.000000
3.341045,4.095730,0.458193,-0.275751,0.000002,0.961229,3.000000
3.463629,4.361736,4.514238,-0.279355,-0.000009,-0.960188,3.000000
3.136181,5.365658,0.399913,0.000003,-0.142493,0.989796,3.000000
3.352171,5.017010,4.546592,-0.279262,-0.000605,-0.960215,3.000000
2.423941,4.025296,0.354616,-0.000000,0.000000,1.000000,3.000000
2.576243,3.443562,4.415217,0.000004,0.444383,-0.895837,3.000000
2.561368,5.135303,0.354616,-0.000000,-0.000001,1.000000,3.000000
2.408583,6.027808,4.409200,0.001230,-0.495464,-0.868628,3.000000
1.992431,4.632927,0.354616,-0.000000,-0.000000,1.000000,3.000000
3.041617,4.632938,0.354616,-0.000000,-0.000000,1.000000,3.000000
1.910305,4.514462,4.717834,0.106178,0.065496,-0.992188,3.000000
3.434046,4.605924,4.522872,-0.279556,0.000039,-0.960130,3.000000
0.528432,4.203237,4.160900,0.511970,0.000011,-0.859003,3.000000
1.846448,3.079398,4.234570,0.000006,0.444380,-0.895838,3.000000
0.536305,5.200799,4.165606,0.511970,0.000011,-0.859004,3.000000
1.854337,6.423936,4.182190,0.000000,-0.497793,-0.867296,3.000000
3.765064,3.799076,4.304264,-0.269299,0.265886,-0.925625,3.000000
3.012465,3.138619,4.244116,-0.097995,0.453639,-0.885781,3.000000
3.770647,5.589223,4.309124,-0.270182,-0.254276,-0.928626,3.000000
2.939648,6.376856,4.198056,-0.063369,-0.502468,-0.862270,3.000000
0.553294,4.611125,4.178282,0.520810,0.000012,-0.853673,3.000000
4.037276,4.770389,4.347350,-0.279372,-0.000010,-0.960183,3.000000
2.423929,3.050122,4.220050,0.000006,0.444380,-0.895838,3.000000
2.423943,6.449927,4.167272,0.000001,-0.497793,-0.867296,3.000000
2.423944,4.632930,0.354616,-0.000000,-0.000000,1.000000,3.000000
3.064859,4.682384,4.627372,-0.259245,0.000437,-0.965812,3.000000
1.698346,4.260404,0.354616,0.000000,-0.000001,1.000000,3.000000
2.367991,3.520070,4.455322,-0.084530,0.450107,-0.888965,3.000000
1.698328,5.362825,0.354616,0.000001,-0.000001,1.000000,3.000000
2.072166,6.061731,4.390080,0.000000,-0.497791,-0.867297,3.000000
3.132376,4.018517,0.405189,-0.000004,0.156166,0.987731,3.000000
3.367057,4.417918,4.542356,-0.279643,0.000412,-0.960104,3.000000
3.302363,5.308190,0.445358,-0.254498,-0.000001,0.967073,3.000000
3.451946,5.067030,4.517581,-0.278917,-0.000167,-0.960315,3.000000
2.561366,4.260400,0.354616,-0.000000,-0.000000,1.000000,3.000000
2.425595,3.529961,4.457790,0.001067,0.442585,-0.896726,3.000000
2.423949,5.362826,0.354616,-0.000002,0.000001,1.000000,3.000000
2.562127,6.102895,4.366454,0.000000,-0.497791,-0.867297,3.000000
1.698338,4.770348,0.354616,-0.000000,-0.000000,1.000000,3.000000
3.384437,4.770372,0.354616,-0.000000,-0.000001,1.000000,3.000000
2.124291,4.758428,4.747941,0.053838,0.019761,-0.998354,3.000000
3.320327,4.788228,4.555923,-0.279135,-0.000255,-0.960252,3.000000
0.695098,4.328388,4.260406,0.523967,0.044099,-0.850596,3.000000
2.140532,3.228085,4.308327,0.000006,0.444380,-0.895838,3.000000
0.754134,4.974609,4.295429,0.511970,0.000011,-0.859004,3.000000
2.148434,6.287927,4.260254,0.000001,-0.497793,-0.867296,3.000000
4.887048,4.057906,3.061261,-0.959155,0.094492,-0.266633,3.000000
2.786555,3.155841,4.251251,0.057510,0.520606,-0.851858,3.000000
4.798771,5.385047,3.308029,-0.914812,-0.104598,-0.390100,3.000000
2.817987,6.346117,4.213717,0.038302,-0.553267,-0.832123,3.000000
0.788770,4.778636,4.318513,0.511982,-0.014363,-0.858876,3.000000
3.788503,4.632859,4.419726,-0.279347,0.000039,-0.960190,3.000000
2.588289,3.235389,4.311954,0.000005,0.444380,-0.895838,3.000000
2.580910,6.286132,4.261284,-0.000000,-0.497792,-0.867296,3.000000
2.561368,4.770354,0.354616,-0.000000,-0.000000,1.000000,3.000000
2.914516,4.862816,4.666094,-0.243819,-0.010954,-0.969759,3.000000
0.140084,3.505565,1.024468,0.933469,0.233083,0.272595,3.000000
1.281131,1.998038,1.455328,0.415725,0.904341,0.096643,3.000000
1.771757,3.227403,-0.376475,0.203938,0.334754,0.919972,3.000000
1.572340,2.308161,3.171445,0.337416,0.783902,-0.521199,3.000000
0.513540,3.368342,3.170064,0.785103,0.335674,-0.520515,3.000000
0.144907,4.905823,1.076636,0.936027,-0.251065,0.246616,3.000000
1.242518,6.352560,1.501693,0.438852,-0.895546,0.073520,3.000000
1.423055,4.838820,-0.363403,0.343582,-0.217564,0.913574,3.000000
1.534875,6.009147,3.207148,0.365608,-0.757408,-0.540984,3.000000
0.618956,5.155078,3.195584,0.736945,-0.413650,-0.534609,3.000000
0.615083,5.231503,3.132664,0.736417,-0.401659,-0.544390,3.000000
4.648607,3.474535,1.065909,-0.934869,0.250078,0.251955,3.000000
3.113362,1.936969,1.074706,-0.250869,0.935828,0.247571,3.000000
3.046218,3.215887,-0.363922,-0.217297,0.343102,0.913818,3.000000
3.356116,2.404881,3.193346,-0.410055,0.739785,-0.533453,3.000000
3.386154,3.458822,3.939105,-0.378121,0.299145,-0.876092,3.000000
3.437424,2.400722,3.126383,-0.400562,0.739359,-0.541202,3.000000
4.641119,4.940347,1.118665,-0.936078,-0.269867,0.225675,3.000000
3.147689,6.433463,1.119997,-0.269561,-0.936327,0.225009,3.000000
3.378810,4.868426,-0.350391,-0.349774,-0.233907,0.907164,3.000000
3.332391,5.962171,3.202507,-0.407316,-0.736541,-0.540000,3.000000
3.366230,5.025741,3.899613,-0.373774,-0.353390,-0.857560,3.000000
4.123296,5.265464,3.158751,-0.712742,-0.422896,-0.559605,3.000000
2.427547,1.849572,1.078524,-0.041252,0.958962,0.280516,3.000000
2.361225,3.202423,-0.424885,-0.008092,0.341929,0.939691,3.000000
2.342344,1.970213,2.812278,-0.000000,0.941974,-0.335687,3.000000
2.342344,3.527425,4.161170,-0.000000,0.199840,-0.979829,3.000000
2.431284,6.530138,1.119848,-0.043121,-0.964676,0.259885,3.000000
2.449296,5.134823,-0.438369,-0.000397,-0.360056,0.932930,3.000000
2.416437,4.780242,4.170679,-0.008907,-0.196505,-0.980462,3.000000
0.067522,4.284014,1.051262,0.966772,-0.021696,0.254717,3.000000
1.410040,4.153998,-0.424710,0.342142,-0.008418,0.939610,3.000000
4.729184,4.284087,1.092158,-0.971918,-0.021732,0.234316,3.000000
3.394670,4.154180,-0.419133,-0.349510,-0.008509,0.936894,3.000000
0.146806,4.239046,2.714979,0.949788,-0.020781,-0.312202,3.000000
1.734022,4.134576,4.160892,0.200449,-0.000000,-0.979704,3.000000
4.655060,4.240084,2.672084,-0.956139,-0.022003,-0.292086,3.000000
3.053271,4.141906,4.159624,-0.199214,-0.000000,-0.979956,3.000000
0.204057,3.073887,1.971675,0.905348,0.415372,-0.088377,3.000000
1.280501,1.996650,1.971831,0.416043,0.905032,-0.088455,3.000000
0.230726,5.336962,1.924822,0.898108,-0.434826,-0.065784,3.000000
1.242158,6.353289,1.929447,0.439022,-0.895892,-0.068096,3.000000
4.562073,3.035807,1.930968,-0.896275,0.438125,-0.068838,3.000000
